-16.000000 -320.000000 40.000000
-16.852803 -321.279204 41.279204
-17.705606 -322.558409 42.558409
-18.558409 -323.837613 43.837613
-19.411211 -325.116817 45.116817
-20.264014 -326.396021 46.396021
-21.116817 -327.675226 47.675226
-21.969620 -328.954430 48.954430
-22.822423 -330.233634 50.233634
-23.675226 -331.512839 51.512839
-24.528029 -332.792043 52.792043
-25.380832 -334.071247 54.071247
-26.233634 -335.350452 55.350452
-27.086437 -336.629656 56.629656
-27.939240 -337.908860 57.908860
-28.792043 -339.188064 59.188064
-29.644846 -340.467269 60.467269
-30.497649 -341.746473 61.746473
-31.350452 -343.025677 63.025677
-32.203254 -344.304882 64.304882
-33.056057 -345.584086 65.584086
-33.908860 -346.863290 66.863290
-34.761663 -348.142495 68.142495
-35.614466 -349.421699 69.421699
-36.467269 -350.700903 70.700903
-37.320072 -351.980107 71.980107
-38.172875 -353.259312 73.259312
-39.025677 -354.538516 74.538516
-39.878480 -355.817720 75.817720
-40.731283 -357.096925 77.096925
-41.584086 -358.376129 78.376129
-42.436889 -359.655333 79.655333
-43.289692 -360.934538 80.934538
-44.142495 -362.213742 82.213742
-44.995297 -363.492946 83.492946
-45.848100 -364.772150 84.772150
-46.700903 -366.051355 86.051355
-47.553706 -367.330559 87.330559
-48.406509 -368.609763 88.609763
-49.259312 -369.888968 89.888968
-50.112115 -371.168172 91.168172
-50.964917 -372.447376 92.447376
-51.817720 -373.726581 93.726581
-52.670523 -375.005785 95.005785
-53.523326 -376.284989 96.284989
-54.376129 -377.564193 97.564193
-55.228932 -378.843398 98.843398
-56.081735 -380.122602 100.122602
-56.934538 -381.401806 101.401806
-57.787340 -382.681011 102.681011
-58.640143 -383.960215 103.960215
-59.492946 -385.239419 105.239419
-60.345749 -386.518624 106.518624
-61.198552 -387.797828 107.797828
-62.051355 -389.077032 109.077032
-62.904158 -390.356236 110.356236
-64.000000 -392.000000 112.000000
-65.457182 -393.320571 111.635704
-66.914364 -394.641143 111.271409
-68.371547 -395.961714 110.907113
-69.828729 -397.282286 110.542818
-71.285911 -398.602857 110.178522
-72.743093 -399.923428 109.814227
-74.200275 -401.244000 109.449931
-75.657458 -402.564571 109.085636
-77.114640 -403.885142 108.721340
-78.571822 -405.205714 108.357044
-80.029004 -406.526285 107.992749
-81.486187 -407.846857 107.628453
-82.943369 -409.167428 107.264158
-84.400551 -410.487999 106.899862
-85.857733 -411.808571 106.535567
-87.314915 -413.129142 106.171271
-88.772098 -414.449713 105.806976
-90.229280 -415.770285 105.442680
-91.686462 -417.090856 105.078385
-93.143644 -418.411428 104.714089
-94.600826 -419.731999 104.349793
-96.058009 -421.052570 103.985498
-97.515191 -422.373142 103.621202
-98.972373 -423.693713 103.256907
-100.429555 -425.014284 102.892611
-101.886737 -426.334856 102.528316
-103.343920 -427.655427 102.164020
-104.801102 -428.975999 101.799725
-106.258284 -430.296570 101.435429
-107.715466 -431.617141 101.071133
-109.172648 -432.937713 100.706838
-110.629831 -434.258284 100.342542
-112.087013 -435.578855 99.978247
-113.544195 -436.899427 99.613951
-115.001377 -438.219998 99.249656
-116.458560 -439.540570 98.885360
-117.915742 -440.861141 98.521065
-119.372924 -442.181712 98.156769
-120.830106 -443.502284 97.792473
-122.287288 -444.822855 97.428178
-123.744471 -446.143426 97.063882
-125.201653 -447.463998 96.699587
-126.658835 -448.784569 96.335291
-128.116017 -450.105141 95.970996
-129.573199 -451.425712 95.606700
-131.030382 -452.746283 95.242405
-132.487564 -454.066855 94.878109
-133.944746 -455.387426 94.513813
-135.401928 -456.707997 94.149518
-136.859110 -458.028569 93.785222
-138.316293 -459.349140 93.420927
-139.773475 -460.669712 93.056631
-141.230657 -461.990283 92.692336
-142.687839 -463.310854 92.328040
-144.145021 -464.631426 91.963745
-145.602204 -465.951997 91.599449
-147.059386 -467.272568 91.235154
-148.516568 -468.593140 90.870858
-149.973750 -469.913711 90.506562
-151.430933 -471.234283 90.142267
-152.888115 -472.554854 89.777971
-154.345297 -473.875425 89.413676
-155.802479 -475.195997 89.049380
-157.259661 -476.516568 88.685085
-158.716844 -477.837139 88.320789
-160.174026 -479.157711 87.956494
-161.631208 -480.478282 87.592198
-163.088390 -481.798854 87.227902
-164.545572 -483.119425 86.863607
-166.002755 -484.439996 86.499311
-167.459937 -485.760568 86.135016
-168.917119 -487.081139 85.770720
-170.374301 -488.401711 85.406425
-171.831483 -489.722282 85.042129
-173.288666 -491.042853 84.677834
-174.745848 -492.363425 84.313538
-176.203030 -493.683996 83.949242
-177.660212 -495.004567 83.584947
-179.117394 -496.325139 83.220651
-180.574577 -497.645710 82.856356
-182.031759 -498.966282 82.492060
-183.488941 -500.286853 82.127765
-184.946123 -501.607424 81.763469
-186.403306 -502.927996 81.399174
-187.860488 -504.248567 81.034878
-189.317670 -505.569138 80.670583
-192.000000 -508.000000 80.000000
-193.908960 -508.000000 79.403450
-195.817920 -508.000000 78.806900
-197.726880 -508.000000 78.210350
-199.635840 -508.000000 77.613800
-201.544800 -508.000000 77.017250
-203.453760 -508.000000 76.420700
-205.362720 -508.000000 75.824150
-207.271680 -508.000000 75.227600
-209.180640 -508.000000 74.631050
-211.089600 -508.000000 74.034500
-212.998560 -508.000000 73.437950
-214.907519 -508.000000 72.841400
-216.816479 -508.000000 72.244850
-218.725439 -508.000000 71.648300
-220.634399 -508.000000 71.051750
-222.543359 -508.000000 70.455200
-224.452319 -508.000000 69.858650
-226.361279 -508.000000 69.262100
-228.270239 -508.000000 68.665550
-230.179199 -508.000000 68.069000
-232.088159 -508.000000 67.472450
-233.997119 -508.000000 66.875900
-235.906079 -508.000000 66.279350
-237.815039 -508.000000 65.682800
-239.723999 -508.000000 65.086250
-241.632959 -508.000000 64.489700
-243.541919 -508.000000 63.893150
-245.450879 -508.000000 63.296600
-247.359839 -508.000000 62.700050
-249.268799 -508.000000 62.103500
-251.177759 -508.000000 61.506950
-253.086719 -508.000000 60.910400
-254.995679 -508.000000 60.313850
-256.904639 -508.000000 59.717300
-258.813598 -508.000000 59.120750
-260.722558 -508.000000 58.524200
-262.631518 -508.000000 57.927651
-264.540478 -508.000000 57.331101
-266.449438 -508.000000 56.734551
-268.358398 -508.000000 56.138001
-270.267358 -508.000000 55.541451
-272.176318 -508.000000 54.944901
-274.085278 -508.000000 54.348351
-275.994238 -508.000000 53.751801
-277.903198 -508.000000 53.155251
-279.812158 -508.000000 52.558701
-281.721118 -508.000000 51.962151
-283.630078 -508.000000 51.365601
-285.539038 -508.000000 50.769051
-287.447998 -508.000000 50.172501
-289.356958 -508.000000 49.575951
-291.265918 -508.000000 48.979401
-293.174878 -508.000000 48.382851
-295.083838 -508.000000 47.786301
-296.992798 -508.000000 47.189751
-298.901758 -508.000000 46.593201
-300.810717 -508.000000 45.996651
-302.719677 -508.000000 45.400101
-304.628637 -508.000000 44.803551
-306.537597 -508.000000 44.207001
-308.446557 -508.000000 43.610451
-310.355517 -508.000000 43.013901
-312.264477 -508.000000 42.417351
-314.173437 -508.000000 41.820801
-316.082397 -508.000000 41.224251
-317.991357 -508.000000 40.627701
